-1656.000000 -3020.000000 52.000000
-1656.181071 -3020.000000 50.008214
-1656.362143 -3020.000000 48.016427
-1656.543214 -3020.000000 46.024641
-1656.724286 -3020.000000 44.032854
-1656.905357 -3020.000000 42.041068
-1657.086429 -3020.000000 40.049282
-1657.267500 -3020.000000 38.057495
-1657.448572 -3020.000000 36.065709
-1657.629643 -3020.000000 34.073922
-1657.810715 -3020.000000 32.082136
-1657.991786 -3020.000000 30.090349
-1658.172858 -3020.000000 28.098563
-1658.353929 -3020.000000 26.106777
-1658.535001 -3020.000000 24.114990
-1658.716072 -3020.000000 22.123204
-1658.897144 -3020.000000 20.131417
-1659.078215 -3020.000000 18.139631
-1659.259287 -3020.000000 16.147845
-1659.440358 -3020.000000 14.156058
-1659.621430 -3020.000000 12.164272
-1659.802501 -3020.000000 10.172485
-1655.500000 -3032.000000 92.000000
-1655.523944 -3031.425345 90.084485
-1655.547888 -3030.850691 88.168969
-1655.571832 -3030.276036 86.253454
-1655.595776 -3029.701382 84.337939
-1655.619720 -3029.126727 82.422424
-1655.643664 -3028.552072 80.506908
-1655.667608 -3027.977418 78.591393
-1655.691552 -3027.402763 76.675878
-1655.715495 -3026.828109 74.760362
-1655.739439 -3026.253454 72.844847
-1655.763383 -3025.678800 70.929332
-1655.787327 -3025.104145 69.013817
-1655.811271 -3024.529490 67.098301
-1655.835215 -3023.954836 65.182786
-1655.859159 -3023.380181 63.267271
-1655.883103 -3022.805527 61.351755
-1655.907047 -3022.230872 59.436240
-1655.930991 -3021.656217 57.520725
-1655.954935 -3021.081563 55.605210
-1655.500000 -3040.000000 88.000000
-1655.500000 -3038.211146 88.894427
-1655.500000 -3036.422291 89.788854
-1655.500000 -3034.633437 90.683282
-1655.500000 -3048.000000 68.000000
-1655.500000 -3047.257219 69.856953
-1655.500000 -3046.514437 71.713907
-1655.500000 -3045.771656 73.570860
-1655.500000 -3045.028875 75.427814
-1655.500000 -3044.286093 77.284767
-1655.500000 -3043.543312 79.141720
-1655.500000 -3042.800531 80.998674
-1655.500000 -3042.057749 82.855627
-1655.500000 -3041.314968 84.712580
-1655.000000 -3052.000000 72.000000
-1655.176090 -3050.591279 70.591279
-1655.000000 -3064.000000 76.000000
-1655.000000 -3062.102633 75.367544
-1655.000000 -3060.205267 74.735089
-1655.000000 -3058.307900 74.102633
-1655.000000 -3056.410534 73.470178
-1655.000000 -3054.513167 72.837722
-1660.000000 -3064.000000 56.000000
-1659.514929 -3064.000000 57.940285
-1659.029857 -3064.000000 59.880570
-1658.544786 -3064.000000 61.820855
-1658.059715 -3064.000000 63.761140
-1657.574644 -3064.000000 65.701425
-1657.089572 -3064.000000 67.641710
-1656.604501 -3064.000000 69.581995
-1656.119430 -3064.000000 71.522280
-1655.634359 -3064.000000 73.462565
-1660.000000 -3064.000000 48.000000
-1660.000000 -3064.000000 50.000000
-1660.000000 -3064.000000 52.000000
-1660.000000 -3076.000000 48.000000
-1660.000000 -3074.000000 48.000000
-1660.000000 -3072.000000 48.000000
-1660.000000 -3070.000000 48.000000
-1660.000000 -3068.000000 48.000000
-1660.000000 -3076.000000 96.000000
-1660.000000 -3076.000000 94.000000
-1660.000000 -3076.000000 92.000000
-1660.000000 -3076.000000 90.000000
-1660.000000 -3076.000000 88.000000
-1660.000000 -3076.000000 86.000000
-1660.000000 -3076.000000 84.000000
-1660.000000 -3076.000000 82.000000
-1660.000000 -3076.000000 80.000000
-1660.000000 -3076.000000 78.000000
-1660.000000 -3076.000000 76.000000
-1660.000000 -3076.000000 74.000000
-1660.000000 -3076.000000 72.000000
-1660.000000 -3076.000000 70.000000
-1660.000000 -3076.000000 68.000000
-1660.000000 -3076.000000 66.000000
-1660.000000 -3076.000000 64.000000
-1660.000000 -3076.000000 62.000000
-1660.000000 -3076.000000 60.000000
-1660.000000 -3076.000000 58.000000
-1660.000000 -3076.000000 56.000000
-1660.000000 -3076.000000 54.000000
-1660.000000 -3076.000000 52.000000
-1627.500000 -3088.000000 96.000000
-1629.376193 -3087.307252 96.000000
-1631.252386 -3086.614504 96.000000
-1633.128579 -3085.921756 96.000000
-1635.004772 -3085.229007 96.000000
-1636.880965 -3084.536259 96.000000
-1638.757158 -3083.843511 96.000000
-1640.633351 -3083.150763 96.000000
-1642.509544 -3082.458015 96.000000
-1644.385737 -3081.765267 96.000000
-1646.261929 -3081.072518 96.000000
-1648.138122 -3080.379770 96.000000
-1650.014315 -3079.687022 96.000000
-1651.890508 -3078.994274 96.000000
-1653.766701 -3078.301526 96.000000
-1655.642894 -3077.608778 96.000000
-1657.519087 -3076.916029 96.000000
-1655.000000 -3092.000000 92.000000
-1653.041017 -3091.715057 92.284943
-1651.082034 -3091.430114 92.569886
-1649.123051 -3091.145171 92.854829
-1647.164067 -3090.860228 93.139772
-1645.205084 -3090.575285 93.424715
-1643.246101 -3090.290342 93.709658
-1641.287118 -3090.005399 93.994601
-1639.328135 -3089.720456 94.279544
-1637.369152 -3089.435513 94.564487
-1635.410169 -3089.150570 94.849430
-1633.451185 -3088.865627 95.134373
-1631.492202 -3088.580684 95.419316
-1629.533219 -3088.295741 95.704259
-1655.500000 -3092.000000 88.000000
-1655.251931 -3092.000000 89.984556
-1664.000000 -3092.000000 68.000000
-1663.217719 -3092.000000 69.840662
-1662.435437 -3092.000000 71.681324
-1661.653156 -3092.000000 73.521986
-1660.870875 -3092.000000 75.362647
-1660.088594 -3092.000000 77.203309
-1659.306312 -3092.000000 79.043971
-1658.524031 -3092.000000 80.884633
-1657.741750 -3092.000000 82.725295
-1656.959468 -3092.000000 84.565957
-1664.000000 -3164.000000 -64.000000
-1664.000000 -3163.042296 -62.244209
-1664.000000 -3162.084591 -60.488418
-1664.000000 -3161.126887 -58.732627
-1664.000000 -3160.169183 -56.976835
-1664.000000 -3159.211479 -55.221044
-1664.000000 -3158.253774 -53.465253
-1664.000000 -3157.296070 -51.709462
-1664.000000 -3156.338366 -49.953671
-1664.000000 -3155.380662 -48.197880
-1664.000000 -3154.422957 -46.442089
-1664.000000 -3153.465253 -44.686297
-1664.000000 -3152.507549 -42.930506
-1664.000000 -3151.549845 -41.174715
-1664.000000 -3150.592140 -39.418924
-1664.000000 -3149.634436 -37.663133
-1664.000000 -3148.676732 -35.907342
-1664.000000 -3147.719028 -34.151551
-1664.000000 -3146.761323 -32.395759
-1664.000000 -3145.803619 -30.639968
-1664.000000 -3144.845915 -28.884177
-1664.000000 -3143.888211 -27.128386
-1664.000000 -3142.930506 -25.372595
-1664.000000 -3141.972802 -23.616804
-1664.000000 -3141.015098 -21.861013
-1664.000000 -3140.057393 -20.105221
-1664.000000 -3139.099689 -18.349430
-1664.000000 -3138.141985 -16.593639
-1664.000000 -3137.184281 -14.837848
-1664.000000 -3136.226576 -13.082057
-1664.000000 -3135.268872 -11.326266
-1664.000000 -3134.311168 -9.570474
-1664.000000 -3133.353464 -7.814683
-1664.000000 -3132.395759 -6.058892
-1664.000000 -3131.438055 -4.303101
-1664.000000 -3130.480351 -2.547310
-1664.000000 -3129.522647 -0.791519
-1664.000000 -3128.564942 0.964272
-1664.000000 -3127.607238 2.720064
-1664.000000 -3126.649534 4.475855
-1664.000000 -3125.691830 6.231646
-1664.000000 -3124.734125 7.987437
-1664.000000 -3123.776421 9.743228
-1664.000000 -3122.818717 11.499019
-1664.000000 -3121.861013 13.254810
-1664.000000 -3120.903308 15.010602
-1664.000000 -3119.945604 16.766393
-1664.000000 -3118.987900 18.522184
-1664.000000 -3118.030195 20.277975
-1664.000000 -3117.072491 22.033766
-1664.000000 -3116.114787 23.789557
-1664.000000 -3115.157083 25.545348
-1664.000000 -3114.199378 27.301140
-1664.000000 -3113.241674 29.056931
-1664.000000 -3112.283970 30.812722
-1664.000000 -3111.326266 32.568513
-1664.000000 -3110.368561 34.324304
-1664.000000 -3109.410857 36.080095
-1664.000000 -3108.453153 37.835886
-1664.000000 -3107.495449 39.591678
-1664.000000 -3106.537744 41.347469
-1664.000000 -3105.580040 43.103260
-1664.000000 -3104.622336 44.859051
-1664.000000 -3103.664632 46.614842
-1664.000000 -3102.706927 48.370633
-1664.000000 -3101.749223 50.126424
-1664.000000 -3100.791519 51.882216
-1664.000000 -3099.833814 53.638007
-1664.000000 -3098.876110 55.393798
-1664.000000 -3097.918406 57.149589
-1664.000000 -3096.960702 58.905380
-1664.000000 -3096.002997 60.661171
-1664.000000 -3095.045293 62.416962
-1664.000000 -3094.087589 64.172754
-1664.000000 -3093.129885 65.928545
-1600.000000 -3164.000000 -64.000000
-1602.000000 -3164.000000 -64.000000
-1604.000000 -3164.000000 -64.000000
-1606.000000 -3164.000000 -64.000000
-1608.000000 -3164.000000 -64.000000
-1610.000000 -3164.000000 -64.000000
-1612.000000 -3164.000000 -64.000000
-1614.000000 -3164.000000 -64.000000
-1616.000000 -3164.000000 -64.000000
-1618.000000 -3164.000000 -64.000000
-1620.000000 -3164.000000 -64.000000
-1622.000000 -3164.000000 -64.000000
-1624.000000 -3164.000000 -64.000000
-1626.000000 -3164.000000 -64.000000
-1628.000000 -3164.000000 -64.000000
-1630.000000 -3164.000000 -64.000000
-1632.000000 -3164.000000 -64.000000
-1634.000000 -3164.000000 -64.000000
-1636.000000 -3164.000000 -64.000000
-1638.000000 -3164.000000 -64.000000
-1640.000000 -3164.000000 -64.000000
-1642.000000 -3164.000000 -64.000000
-1644.000000 -3164.000000 -64.000000
-1646.000000 -3164.000000 -64.000000
-1648.000000 -3164.000000 -64.000000
-1650.000000 -3164.000000 -64.000000
-1652.000000 -3164.000000 -64.000000
-1654.000000 -3164.000000 -64.000000
-1656.000000 -3164.000000 -64.000000
-1658.000000 -3164.000000 -64.000000
-1660.000000 -3164.000000 -64.000000
-1600.000000 -3108.000000 52.000000
-1600.000000 -3108.869498 50.198897
-1600.000000 -3109.738996 48.397793
-1600.000000 -3110.608494 46.596690
-1600.000000 -3111.477993 44.795587
-1600.000000 -3112.347491 42.994484
-1600.000000 -3113.216989 41.193380
-1600.000000 -3114.086487 39.392277
-1600.000000 -3114.955985 37.591174
-1600.000000 -3115.825483 35.790071
-1600.000000 -3116.694981 33.988967
-1600.000000 -3117.564479 32.187864
-1600.000000 -3118.433978 30.386761
-1600.000000 -3119.303476 28.585657
-1600.000000 -3120.172974 26.784554
-1600.000000 -3121.042472 24.983451
-1600.000000 -3121.911970 23.182348
-1600.000000 -3122.781468 21.381244
-1600.000000 -3123.650966 19.580141
-1600.000000 -3124.520465 17.779038
-1600.000000 -3125.389963 15.977935
-1600.000000 -3126.259461 14.176831
-1600.000000 -3127.128959 12.375728
-1600.000000 -3127.998457 10.574625
-1600.000000 -3128.867955 8.773521
-1600.000000 -3129.737453 6.972418
-1600.000000 -3130.606951 5.171315
-1600.000000 -3131.476450 3.370212
-1600.000000 -3132.345948 1.569108
-1600.000000 -3133.215446 -0.231995
-1600.000000 -3134.084944 -2.033098
-1600.000000 -3134.954442 -3.834201
-1600.000000 -3135.823940 -5.635305
-1600.000000 -3136.693438 -7.436408
-1600.000000 -3137.562936 -9.237511
-1600.000000 -3138.432435 -11.038615
-1600.000000 -3139.301933 -12.839718
-1600.000000 -3140.171431 -14.640821
-1600.000000 -3141.040929 -16.441924
-1600.000000 -3141.910427 -18.243028
-1600.000000 -3142.779925 -20.044131
-1600.000000 -3143.649423 -21.845234
-1600.000000 -3144.518922 -23.646337
-1600.000000 -3145.388420 -25.447441
-1600.000000 -3146.257918 -27.248544
-1600.000000 -3147.127416 -29.049647
-1600.000000 -3147.996914 -30.850751
-1600.000000 -3148.866412 -32.651854
-1600.000000 -3149.735910 -34.452957
-1600.000000 -3150.605408 -36.254060
-1600.000000 -3151.474907 -38.055164
-1600.000000 -3152.344405 -39.856267
-1600.000000 -3153.213903 -41.657370
-1600.000000 -3154.083401 -43.458473
-1600.000000 -3154.952899 -45.259577
-1600.000000 -3155.822397 -47.060680
-1600.000000 -3156.691895 -48.861783
-1600.000000 -3157.561394 -50.662887
-1600.000000 -3158.430892 -52.463990
-1600.000000 -3159.300390 -54.265093
-1600.000000 -3160.169888 -56.066196
-1600.000000 -3161.039386 -57.867300
-1600.000000 -3161.908884 -59.668403
-1600.000000 -3162.778382 -61.469506
-1628.000000 -3112.000000 52.000000
-1626.020101 -3111.717157 52.000000
-1624.040202 -3111.434315 52.000000
-1622.060303 -3111.151472 52.000000
-1620.080404 -3110.868629 52.000000
-1618.100505 -3110.585786 52.000000
-1616.120606 -3110.302944 52.000000
-1614.140707 -3110.020101 52.000000
-1612.160808 -3109.737258 52.000000
-1610.180909 -3109.454416 52.000000
-1608.201010 -3109.171573 52.000000
-1606.221111 -3108.888730 52.000000
-1604.241212 -3108.605887 52.000000
-1602.261313 -3108.323045 52.000000
